ply
format ascii 1.0
comment VCGLIB generated
element vertex 1095
property float x
property float y
property float z
property uchar red
property uchar green
property uchar blue
property uchar alpha
end_header
-0.220215 0.295166 -0.703613 199 170 186 255 
-0.217285 0.296143 -0.705566 200 171 187 255 
-0.214355 0.296875 -0.70752 201 172 188 255 
-0.211426 0.297852 -0.709473 199 171 184 255 
-0.208374 0.298584 -0.711426 201 171 185 255 
-0.205322 0.299561 -0.713379 203 173 187 255 
-0.202393 0.300293 -0.715332 204 171 184 255 
-0.198975 0.300781 -0.716797 204 171 184 255 
-0.195923 0.301514 -0.71875 201 166 180 255 
-0.192871 0.30249 -0.720703 203 165 178 255 
-0.189819 0.303223 -0.722656 201 163 176 255 
-0.186646 0.303955 -0.724609 197 160 169 255 
-0.183716 0.30542 -0.727539 197 160 169 255 
-0.180542 0.306152 -0.729492 190 156 164 255 
-0.177612 0.307373 -0.732422 183 149 157 255 
-0.174683 0.308594 -0.73584 166 138 147 255 
-0.171387 0.30957 -0.737793 107 94 112 255 
-0.168091 0.310303 -0.739746 67 74 98 255 
-0.164429 0.310303 -0.739746 74 99 124 255 
-0.669434 1.38965 -3.3125 143 141 131 255 
-0.659668 1.4043 -3.34766 144 140 129 255 
-0.638184 1.39453 -3.32227 147 143 132 255 
-0.623535 1.39941 -3.33594 144 140 129 255 
-0.591309 1.36328 -3.24805 144 140 129 255 
-0.573242 1.35938 -3.23828 146 142 131 255 
-0.554688 1.35449 -3.22656 147 143 132 255 
-0.536133 1.34863 -3.21289 146 142 131 255 
-0.517578 1.3418 -3.19727 148 144 133 255 
-0.499268 1.33594 -3.18359 148 144 133 255 
-0.481201 1.33008 -3.16992 146 142 131 255 
-0.463135 1.32422 -3.15625 148 144 133 255 
-0.44458 1.31738 -3.13867 149 142 132 255 
-0.427246 1.31152 -3.12695 150 146 135 255 
-0.408691 1.30273 -3.10547 154 153 138 255 
-0.390869 1.2959 -3.08789 135 133 121 255 
-0.373535 1.29004 -3.07227 69 69 63 255 
-0.355713 1.28125 -3.05273 45 45 39 255 
-0.338867 1.27637 -3.04102 20 20 16 255 
-0.322266 1.27148 -3.0293 32 32 28 255 
-0.30542 1.26465 -3.01367 91 91 87 255 
-0.288818 1.25879 -3 147 144 141 255 
-0.272461 1.25293 -2.98633 151 150 150 255 
-0.256104 1.24609 -2.96875 147 148 144 255 
-0.239502 1.2373 -2.94922 147 148 144 255 
-0.223511 1.23145 -2.93359 146 147 143 255 
-0.208496 1.22949 -2.92969 147 148 144 255 
-0.162231 1.21484 -2.89453 153 153 147 255 
-0.10144 1.18652 -2.82812 155 155 149 255 
-0.0875854 1.19238 -2.8418 155 155 149 255 
-0.0727539 1.18457 -2.82227 158 158 152 255 
-0.0584717 1.18262 -2.81836 157 158 152 255 
-0.0441284 1.17969 -2.81055 159 160 154 255 
-0.0299683 1.17969 -2.81055 159 160 154 255 
-0.0157776 1.17676 -2.80469 159 160 156 255 
-0.00163651 1.17188 -2.79102 160 161 157 255 
0.0124054 1.16895 -2.78516 160 161 157 255 
0.0263824 1.16699 -2.7793 162 163 159 255 
0.0402527 1.16211 -2.76953 162 163 159 255 
0.0541077 1.16016 -2.76562 161 162 158 255 
0.0665283 1.13477 -2.70508 161 162 158 255 
0.079895 1.13086 -2.69531 164 165 161 255 
0.0931396 1.12695 -2.68555 164 165 161 255 
0.106506 1.125 -2.67969 165 166 162 255 
0.118591 1.11133 -2.64844 166 167 163 255 
0.130737 1.10254 -2.62695 167 167 167 255 
0.144043 1.10254 -2.62695 165 168 167 255 
0.15686 1.09961 -2.62109 166 169 168 255 
0.169556 1.09668 -2.61133 167 171 166 255 
0.182129 1.09277 -2.60352 167 171 166 255 
0.194458 1.08789 -2.59375 169 173 168 255 
0.206787 1.08398 -2.58398 169 173 168 255 
0.218872 1.0791 -2.57227 171 175 170 255 
0.230835 1.0752 -2.56055 173 177 172 255 
0.242188 1.06836 -2.54492 177 181 176 255 
0.253906 1.06348 -2.5332 55 54 54 255 
0.265381 1.05859 -2.52148 14 18 11 255 
0.276611 1.05273 -2.50781 10 20 6 255 
0.287598 1.04688 -2.49414 7 17 3 255 
0.298096 1.04004 -2.47852 172 165 157 255 
0.308594 1.0332 -2.46094 183 173 159 255 
0.319092 1.02637 -2.44727 173 167 154 255 
0.329346 1.02051 -2.43164 172 165 157 255 
0.3396 1.01465 -2.41797 150 146 137 255 
0.349854 1.00879 -2.4043 136 132 123 255 
0.359863 1.00293 -2.39062 207 200 192 255 
0.369873 0.997559 -2.37695 139 130 123 255 
0.379639 0.991699 -2.36133 207 198 191 255 
0.38916 0.98584 -2.34766 198 194 187 255 
0.39917 0.980957 -2.33789 199 194 190 255 
0.40918 0.977051 -2.32617 199 194 190 255 
0.418945 0.972656 -2.31641 199 194 190 255 
0.429688 0.970215 -2.31055 200 195 191 255 
0.439941 0.967285 -2.30469 201 197 190 255 
0.450439 0.964355 -2.29883 201 197 190 255 
0.460449 0.961426 -2.29102 203 199 192 255 
0.470459 0.958496 -2.2832 201 196 192 255 
0.47998 0.95459 -2.27344 202 199 194 255 
0.489014 0.949707 -2.26367 202 199 194 255 
0.497803 0.944824 -2.25 203 200 195 255 
0.506348 0.939941 -2.23828 203 200 195 255 
0.514648 0.934082 -2.22656 204 201 196 255 
0.522949 0.929199 -2.21289 204 201 196 255 
0.531738 0.924805 -2.20312 204 201 196 255 
0.541016 0.921387 -2.19531 205 203 195 255 
0.550293 0.918457 -2.18945 204 201 196 255 
0.55957 0.915527 -2.18164 203 200 195 255 
0.568848 0.913086 -2.17578 205 202 197 255 
0.578125 0.910156 -2.16797 206 203 198 255 
0.587402 0.907715 -2.16211 205 202 197 255 
0.596191 0.905273 -2.15625 206 203 200 255 
0.605469 0.902832 -2.15039 207 204 201 255 
0.614258 0.899902 -2.14258 207 204 201 255 
0.623535 0.896973 -2.13672 209 206 203 255 
0.632324 0.894043 -2.13086 210 207 204 255 
0.635254 0.883301 -2.10352 209 206 203 255 
0.64209 0.878418 -2.09375 209 205 206 255 
0.650879 0.875977 -2.08789 210 207 204 255 
0.65918 0.873047 -2.08008 210 207 204 255 
0.667969 0.871094 -2.07422 210 207 204 255 
0.67627 0.868164 -2.06836 209 209 205 255 
0.685547 0.866211 -2.06445 209 209 205 255 
0.693848 0.864258 -2.05859 209 208 208 255 
0.703125 0.862793 -2.05469 209 208 208 255 
0.711914 0.860352 -2.05078 210 209 209 255 
0.720215 0.858398 -2.04492 210 209 209 255 
0.729004 0.856445 -2.03906 210 209 209 255 
0.736816 0.854004 -2.0332 210 209 209 255 
0.744629 0.851074 -2.02734 211 210 210 255 
0.751465 0.847168 -2.01758 210 209 209 255 
0.757812 0.842773 -2.00781 211 211 211 255 
0.764648 0.839355 -2 210 210 210 255 
0.770508 0.834961 -1.98926 210 210 210 255 
0.775879 0.82959 -1.97754 210 210 210 255 
0.782715 0.826172 -1.96875 211 211 211 255 
0.789551 0.823242 -1.96094 211 211 211 255 
0.796875 0.820312 -1.95508 211 211 211 255 
0.804688 0.818359 -1.9502 214 214 214 255 
0.8125 0.816406 -1.94531 213 213 213 255 
0.820312 0.814453 -1.94141 214 214 214 255 
0.828125 0.8125 -1.93652 216 216 216 255 
0.835938 0.811035 -1.93164 215 215 215 255 
0.84375 0.808594 -1.92676 215 215 215 255 
0.851074 0.806641 -1.92188 212 215 214 255 
0.858398 0.804688 -1.91699 212 215 214 255 
0.865723 0.801758 -1.91113 213 216 215 255 
0.873047 0.799805 -1.90625 213 216 215 255 
0.879883 0.797363 -1.90039 213 216 215 255 
0.88623 0.794922 -1.89355 213 216 215 255 
0.893066 0.79248 -1.8877 214 217 216 255 
0.899902 0.789551 -1.88184 214 217 216 255 
0.906738 0.787598 -1.87695 214 217 216 255 
0.913574 0.785156 -1.87109 215 218 217 255 
0.919922 0.782715 -1.86523 215 218 217 255 
0.926758 0.780273 -1.85938 213 216 215 255 
0.933105 0.777832 -1.85352 211 214 213 255 
0.939941 0.775879 -1.84863 214 217 216 255 
0.946777 0.773926 -1.84375 213 216 215 255 
0.953125 0.771484 -1.83887 214 217 216 255 
0.959961 0.769531 -1.83398 213 216 215 255 
0.96582 0.76709 -1.82812 215 218 217 255 
0.970703 0.763672 -1.81934 211 217 215 255 
0.975586 0.760254 -1.81152 210 216 214 255 
0.980469 0.756836 -1.80371 211 217 215 255 
0.983887 0.752441 -1.79395 210 216 214 255 
0.983887 0.745605 -1.77637 210 216 214 255 
0.987793 0.741699 -1.76758 210 216 214 255 
0.992676 0.73877 -1.76074 209 215 213 255 
0.998047 0.736328 -1.75391 210 216 214 255 
1.00293 0.733887 -1.74805 211 217 217 255 
1.00879 0.731445 -1.74316 210 216 216 255 
1.01465 0.729492 -1.73828 210 216 216 255 
1.02051 0.727051 -1.73242 209 215 215 255 
1.02539 0.725098 -1.72754 210 216 216 255 
1.03223 0.723145 -1.72363 210 216 214 255 
1.03809 0.72168 -1.71875 210 216 214 255 
1.04492 0.720215 -1.71582 207 213 211 255 
1.05176 0.71875 -1.71289 207 213 211 255 
1.05957 0.718262 -1.71094 207 213 211 255 
1.06641 0.717285 -1.70898 206 212 210 255 
1.07324 0.71582 -1.70605 205 211 209 255 
1.0791 0.714355 -1.70215 205 211 209 255 
1.08594 0.712402 -1.69824 204 212 209 255 
1.09082 0.710449 -1.69336 203 211 208 255 
1.0957 0.708008 -1.6875 204 212 209 255 
1.10059 0.706055 -1.68164 205 213 210 255 
1.10547 0.703125 -1.67578 205 213 210 255 
1.11035 0.701172 -1.6709 204 210 208 255 
1.11523 0.699219 -1.66602 202 208 206 255 
1.12012 0.697266 -1.66113 202 208 206 255 
1.12598 0.695312 -1.65723 202 208 206 255 
1.13086 0.693359 -1.65234 202 208 206 255 
1.13477 0.69043 -1.64453 197 203 201 255 
1.13965 0.687988 -1.63965 198 205 199 255 
1.14355 0.686035 -1.63477 198 205 199 255 
1.15039 0.685059 -1.63184 196 203 197 255 
1.15527 0.682617 -1.62695 195 202 196 255 
1.16113 0.681641 -1.62402 193 200 194 255 
1.16699 0.680176 -1.62109 181 190 183 255 
1.17285 0.678711 -1.61816 183 194 192 255 
1.17871 0.677734 -1.61523 192 203 203 255 
1.18457 0.67627 -1.61133 190 200 203 255 
1.19043 0.675293 -1.6084 187 198 198 255 
1.19727 0.674316 -1.60645 185 196 196 255 
1.20312 0.672852 -1.60352 185 198 197 255 
1.20898 0.671875 -1.60059 184 197 196 255 
1.21484 0.67041 -1.59766 181 194 193 255 
1.21973 0.668945 -1.59375 182 195 194 255 
1.22559 0.66748 -1.59082 182 193 193 255 
1.23145 0.666504 -1.58887 182 193 193 255 
1.23828 0.666016 -1.58691 182 193 193 255 
1.24023 0.662598 -1.5791 181 192 192 255 
-0.362549 0.291992 -0.70459 99 68 55 255 
-0.35791 0.29126 -0.702637 111 75 63 255 
-0.354004 0.290771 -0.70166 112 78 66 255 
-0.349854 0.290527 -0.700684 119 85 73 255 
-0.345947 0.290039 -0.699707 121 88 73 255 
-0.341309 0.289062 -0.697266 121 88 71 255 
-0.336914 0.28833 -0.695312 118 85 68 255 
-0.332275 0.287598 -0.693359 115 82 65 255 
-0.327881 0.286621 -0.691406 116 86 68 255 
-0.323486 0.285889 -0.689453 119 89 73 255 
-0.319092 0.284912 -0.6875 127 96 85 255 
-0.314697 0.28418 -0.685547 130 101 91 255 
-0.310791 0.283691 -0.68457 132 105 99 255 
-0.306885 0.283447 -0.683594 135 107 104 255 
-0.302979 0.282959 -0.682617 146 115 115 255 
-0.299072 0.282471 -0.681641 148 120 119 255 
-0.295166 0.282227 -0.680176 152 126 126 255 
-0.291748 0.282227 -0.680176 154 128 128 255 
-0.28833 0.282227 -0.680176 145 118 121 255 
-0.284424 0.281738 -0.679199 153 124 130 255 
-0.281006 0.281738 -0.679199 151 124 129 255 
-0.278076 0.282227 -0.680176 143 119 121 255 
-0.274658 0.282227 -0.680176 146 124 128 255 
-0.27124 0.282227 -0.680176 97 81 86 255 
-0.268311 0.282471 -0.681641 140 122 128 255 
-0.265137 0.282959 -0.682617 147 126 133 255 
-0.262451 0.283691 -0.68457 154 132 136 255 
-0.259521 0.28418 -0.685547 151 130 137 255 
-0.256348 0.284668 -0.686523 153 132 141 255 
-0.253662 0.2854 -0.688477 157 136 145 255 
-0.250488 0.285889 -0.689453 160 139 148 255 
-0.247437 0.286377 -0.69043 164 143 152 255 
-0.244995 0.287598 -0.693359 166 145 156 255 
-0.241943 0.287842 -0.694336 175 149 164 255 
-0.23877 0.28833 -0.695312 183 157 172 255 
-0.235962 0.289062 -0.697266 186 160 177 255 
-0.232788 0.289551 -0.698242 186 160 175 255 
-0.229858 0.290527 -0.700684 189 163 178 255 
-0.226685 0.290771 -0.70166 188 162 177 255 
-0.223755 0.291748 -0.703613 193 164 180 255 
-0.220581 0.291992 -0.70459 194 165 181 255 
-0.217651 0.292969 -0.706543 200 171 187 255 
-0.214355 0.293457 -0.70752 200 171 187 255 
-0.211426 0.294189 -0.709473 201 172 188 255 
-0.208374 0.294922 -0.711426 200 172 185 255 
-0.205322 0.295898 -0.713379 204 176 189 255 
-0.202026 0.296143 -0.714355 202 172 184 255 
-0.198975 0.297119 -0.716797 204 171 184 255 
-0.195679 0.297607 -0.717773 200 167 180 255 
-0.192627 0.29834 -0.719727 202 167 181 255 
-0.189453 0.299072 -0.72168 199 164 178 255 
-0.186401 0.300049 -0.723633 196 161 173 255 
-0.183228 0.300781 -0.725586 194 159 171 255 
-0.180054 0.301758 -0.727539 191 159 166 255 
-0.17688 0.30249 -0.729492 162 139 149 255 
-0.17395 0.303711 -0.732422 122 119 133 255 
-0.170654 0.304688 -0.734863 128 148 172 255 
-0.16748 0.30542 -0.736816 112 143 170 255 
-0.16394 0.305908 -0.737793 78 110 142 255 
-0.651367 1.37109 -3.30664 143 141 129 255 
-0.637695 1.37695 -3.32031 143 139 128 255 
-0.60791 1.34766 -3.25 146 142 131 255 
-0.589355 1.34277 -3.24023 146 142 131 255 
-0.571289 1.33887 -3.23047 144 140 129 255 
-0.554199 1.33691 -3.22461 147 143 132 255 
-0.535156 1.33008 -3.20898 146 142 131 255 
-0.516602 1.32324 -3.19336 148 144 133 255 
-0.498047 1.31738 -3.17578 147 143 132 255 
-0.47998 1.31152 -3.16211 148 144 133 255 
-0.462158 1.30566 -3.14844 154 151 137 255 
-0.443848 1.29883 -3.13281 134 130 119 255 
-0.425537 1.29102 -3.11328 75 71 62 255 
-0.408203 1.28613 -3.10156 30 28 20 255 
-0.390381 1.27832 -3.08398 25 25 19 255 
-0.373047 1.27246 -3.07031 64 61 58 255 
-0.355469 1.26562 -3.05273 100 97 94 255 
-0.338867 1.26074 -3.03906 147 146 146 255 
-0.322266 1.25586 -3.02734 148 148 144 255 
-0.30542 1.25 -3.01367 144 144 138 255 
-0.289062 1.24414 -3 146 146 140 255 
-0.272705 1.23828 -2.98633 146 146 140 255 
-0.256104 1.23047 -2.96875 146 147 143 255 
-0.238281 1.2168 -2.93359 147 148 144 255 
-0.223511 1.21582 -2.93359 147 148 144 255 
-0.206787 1.20508 -2.9082 149 150 146 255 
-0.191406 1.2002 -2.89453 151 152 148 255 
-0.178833 1.21484 -2.92969 151 152 146 255 
-0.163208 1.20801 -2.91406 154 154 148 255 
-0.148682 1.20996 -2.91797 155 155 149 255 
-0.132324 1.19434 -2.88086 156 156 150 255 
-0.10199 1.17969 -2.84375 156 156 150 255 
-0.0878296 1.18164 -2.84961 159 159 153 255 
-0.072937 1.17285 -2.82812 158 159 153 255 
-0.0586853 1.17285 -2.82812 160 161 157 255 
-0.04422 1.16797 -2.81641 159 160 156 255 
-0.0300293 1.16699 -2.81445 159 159 159 255 
-0.0157928 1.16406 -2.80859 159 159 159 255 
-0.00164127 1.16113 -2.80078 160 160 160 255 
0.0124435 1.1582 -2.79297 161 162 158 255 
0.0264587 1.15527 -2.78711 161 162 158 255 
0.0403748 1.15234 -2.7793 161 162 158 255 
0.0541382 1.14648 -2.76562 162 163 159 255 
0.0678101 1.14258 -2.75586 164 165 161 255 
0.079834 1.11621 -2.69336 165 166 162 255 
0.0930786 1.1123 -2.68359 165 166 162 255 
0.108276 1.12988 -2.72656 166 167 163 255 
0.119934 1.11133 -2.67969 165 165 165 255 
0.131714 1.09668 -2.64453 168 168 168 255 
0.144409 1.0918 -2.63477 169 169 169 255 
0.15686 1.08594 -2.62109 168 168 168 255 
0.169312 1.08105 -2.60742 166 169 168 255 
0.181396 1.0752 -2.59375 167 170 169 255 
0.193481 1.06934 -2.58008 169 172 171 255 
0.205688 1.06543 -2.56836 170 173 172 255 
0.217773 1.06055 -2.55859 172 175 174 255 
0.229858 1.05762 -2.55078 173 177 172 255 
0.241699 1.05273 -2.53906 178 182 177 255 
0.253662 1.0498 -2.53125 31 34 37 255 
0.265137 1.04492 -2.51953 13 19 19 255 
0.276367 1.03906 -2.50586 11 19 6 255 
0.287354 1.0332 -2.49219 8 20 10 255 
0.298096 1.02734 -2.47852 178 179 173 255 
0.308594 1.02051 -2.46094 181 173 159 255 
0.319092 1.01367 -2.44531 175 166 157 255 
0.329346 1.00781 -2.42969 168 159 152 255 
0.3396 1.00195 -2.41602 153 146 138 255 
0.349609 0.996094 -2.40234 141 134 124 255 
0.359863 0.990723 -2.38867 201 194 186 255 
0.369873 0.985352 -2.37695 149 142 132 255 
0.379639 0.979492 -2.36133 206 199 189 255 
0.389404 0.974609 -2.34961 201 194 186 255 
0.39917 0.969727 -2.33789 200 196 189 255 
0.409424 0.96582 -2.33008 200 196 189 255 
0.419678 0.962402 -2.32031 201 196 192 255 
0.429932 0.959473 -2.3125 201 196 192 255 
0.440186 0.956543 -2.30664 204 199 195 255 
0.450439 0.953613 -2.29883 204 200 193 255 
0.460693 0.950684 -2.29102 203 199 192 255 
0.470703 0.947266 -2.2832 204 200 193 255 
0.47998 0.942871 -2.27344 203 200 195 255 
0.489014 0.938477 -2.26367 203 200 195 255 
0.497803 0.933594 -2.25 202 199 194 255 
0.505859 0.928223 -2.23828 204 201 196 255 
0.51416 0.922852 -2.22461 204 201 196 255 
0.522949 0.917969 -2.21289 204 201 196 255 
0.531738 0.914062 -2.20312 204 201 196 255 
0.540527 0.910156 -2.19531 206 203 198 255 
0.549805 0.907227 -2.1875 205 202 197 255 
0.55957 0.904785 -2.18164 206 203 198 255 
0.568848 0.902344 -2.17578 207 204 199 255 
0.578125 0.899902 -2.16992 206 203 198 255 
0.587402 0.897461 -2.16406 206 203 198 255 
0.597168 0.89502 -2.1582 206 203 200 255 
0.605957 0.892578 -2.15234 207 204 201 255 
0.615234 0.890137 -2.14648 207 207 203 255 
0.624512 0.888184 -2.14062 207 207 203 255 
0.633789 0.885742 -2.13477 205 205 201 255 
0.644043 0.884766 -2.13281 207 207 203 255 
0.653809 0.883301 -2.13086 209 206 203 255 
0.652344 0.867188 -2.0918 210 207 204 255 
0.658203 0.861328 -2.07617 211 208 205 255 
0.66748 0.859863 -2.07227 211 208 205 255 
0.67627 0.85791 -2.06836 211 208 205 255 
0.685059 0.855469 -2.0625 211 208 205 255 
0.693848 0.853516 -2.05859 209 209 205 255 
0.702637 0.852051 -2.05469 209 208 208 255 
0.711426 0.849609 -2.04883 210 209 209 255 
0.720215 0.848145 -2.04492 210 209 209 255 
0.728516 0.845703 -2.03906 211 210 210 255 
0.736328 0.843262 -2.0332 209 208 208 255 
0.744141 0.840332 -2.02539 211 210 210 255 
0.751465 0.836914 -2.01758 212 211 211 255 
0.757812 0.83252 -2.00781 211 211 211 255 
0.763184 0.827637 -1.99609 210 210 210 255 
0.768555 0.822266 -1.9834 210 210 210 255 
0.775391 0.818848 -1.97559 210 211 207 255 
0.781738 0.81543 -1.9668 211 212 208 255 
0.788574 0.8125 -1.95898 211 212 208 255 
0.795898 0.80957 -1.95312 213 214 210 255 
0.803223 0.807129 -1.94727 214 215 211 255 
0.811523 0.805664 -1.94336 213 213 213 255 
0.819824 0.804199 -1.93945 214 214 214 255 
0.827148 0.801758 -1.93359 213 213 213 255 
0.835449 0.800293 -1.92969 215 215 215 255 
0.842773 0.79834 -1.9248 213 216 215 255 
0.850098 0.795898 -1.91992 213 216 215 255 
0.85791 0.793945 -1.91504 212 215 214 255 
0.865234 0.791992 -1.91016 212 215 214 255 
0.872559 0.790039 -1.90527 214 217 216 255 
0.879395 0.787109 -1.89941 214 217 216 255 
0.88623 0.785156 -1.89355 213 216 215 255 
0.893066 0.782715 -1.8877 213 216 215 255 
0.899902 0.780273 -1.88184 213 216 215 255 
0.90625 0.777832 -1.87598 214 217 216 255 
0.912598 0.774902 -1.86914 214 217 216 255 
0.918945 0.772461 -1.8623 214 217 216 255 
0.925781 0.770508 -1.85742 214 217 216 255 
0.932129 0.767578 -1.85156 213 216 215 255 
0.938965 0.765625 -1.84668 214 217 216 255 
0.945312 0.763672 -1.8418 213 216 215 255 
0.95166 0.76123 -1.83594 212 215 214 255 
0.958496 0.758789 -1.83105 213 216 215 255 
0.963867 0.756348 -1.82324 213 216 215 255 
0.96875 0.75293 -1.81543 213 216 215 255 
0.973633 0.749512 -1.80762 214 217 216 255 
0.979492 0.74707 -1.80176 212 215 214 255 
0.978027 0.739258 -1.78223 213 216 215 255 
0.983887 0.736328 -1.77637 213 216 215 255 
0.988281 0.733398 -1.76855 211 217 215 255 
0.993652 0.730957 -1.7627 209 215 213 255 
0.999023 0.728027 -1.75684 210 216 214 255 
1.00488 0.726074 -1.75098 210 216 214 255 
1.01074 0.724121 -1.74609 210 216 214 255 
1.01562 0.72168 -1.74023 207 213 211 255 
1.02148 0.719238 -1.73438 210 216 216 255 
1.02734 0.716797 -1.72949 210 216 216 255 
1.03223 0.714355 -1.72363 210 216 216 255 
1.03809 0.712402 -1.71777 207 213 213 255 
1.04395 0.710938 -1.71387 207 213 211 255 
1.05078 0.709473 -1.71094 207 213 211 255 
1.05762 0.708008 -1.70801 207 213 211 255 
1.06445 0.70752 -1.70605 207 213 211 255 
1.07129 0.706055 -1.70312 205 211 209 255 
1.07812 0.70459 -1.69922 206 212 210 255 
1.08398 0.702637 -1.69531 206 212 210 255 
1.08887 0.700684 -1.69043 206 212 210 255 
1.09375 0.69873 -1.68555 204 212 209 255 
1.09863 0.696289 -1.67871 205 213 210 255 
1.10352 0.693848 -1.67383 202 210 207 255 
1.10938 0.691895 -1.66895 201 209 206 255 
1.11426 0.689941 -1.66406 199 207 204 255 
1.11914 0.687988 -1.65918 198 206 203 255 
1.125 0.686035 -1.65527 201 209 206 255 
1.12988 0.68457 -1.65137 199 208 201 255 
1.13379 0.681641 -1.64355 196 205 198 255 
1.13867 0.679688 -1.63867 196 204 201 255 
1.14355 0.677246 -1.63379 196 205 198 255 
1.14941 0.67627 -1.63086 195 204 197 255 
1.15527 0.674316 -1.62695 194 203 196 255 
1.16113 0.67334 -1.62402 191 200 193 255 
1.16602 0.671387 -1.62012 172 178 176 255 
1.17188 0.67041 -1.61719 188 196 195 255 
1.17871 0.669434 -1.61523 190 201 201 255 
1.18457 0.668457 -1.61133 190 201 201 255 
1.19043 0.666992 -1.6084 187 198 198 255 
1.19629 0.666016 -1.60547 186 197 197 255 
1.20215 0.664551 -1.60254 182 193 193 255 
1.20801 0.663086 -1.59961 181 194 193 255 
1.21387 0.662109 -1.59668 181 194 193 255 
1.21973 0.660645 -1.59375 181 194 193 255 
1.22559 0.659668 -1.59082 179 192 191 255 
1.23145 0.658203 -1.58789 183 194 194 255 
1.2373 0.657227 -1.58594 180 191 191 255 
1.24023 0.654785 -1.5791 180 193 192 255 
-0.358887 0.288574 -0.70459 92 61 50 255 
-0.354492 0.287842 -0.702637 105 74 61 255 
-0.35083 0.287842 -0.702637 108 75 60 255 
-0.346436 0.286865 -0.700684 114 81 66 255 
-0.342285 0.286377 -0.699707 118 85 68 255 
-0.337891 0.285645 -0.697266 116 83 66 255 
-0.333252 0.284912 -0.695312 114 81 64 255 
-0.328857 0.283936 -0.693359 115 82 65 255 
-0.324463 0.283203 -0.691406 119 86 71 255 
-0.320068 0.282471 -0.689453 124 93 80 255 
-0.315674 0.281494 -0.6875 123 97 82 255 
-0.311768 0.28125 -0.686523 128 102 89 255 
-0.307861 0.280762 -0.685547 136 109 101 255 
-0.303955 0.280273 -0.68457 137 110 104 255 
-0.300049 0.280029 -0.683594 139 111 108 255 
-0.296143 0.279541 -0.682617 143 114 118 255 
-0.292725 0.279541 -0.682617 149 120 124 255 
-0.288818 0.279053 -0.681641 146 117 121 255 
-0.2854 0.279053 -0.681641 153 121 126 255 
-0.281982 0.279053 -0.681641 151 124 127 255 
-0.278564 0.279053 -0.681641 133 109 111 255 
-0.275391 0.279541 -0.682617 139 119 120 255 
-0.271973 0.279541 -0.682617 81 63 69 255 
-0.269043 0.280029 -0.683594 138 117 124 255 
-0.265869 0.280273 -0.68457 146 125 132 255 
-0.262939 0.280762 -0.685547 152 131 138 255 
-0.260254 0.281494 -0.6875 152 131 138 255 
-0.25708 0.281982 -0.688477 154 131 141 255 
-0.253906 0.282471 -0.689453 157 132 142 255 
-0.251221 0.283203 -0.691406 161 136 146 255 
-0.247803 0.283203 -0.691406 164 141 153 255 
-0.245361 0.284424 -0.694336 169 144 156 255 
-0.242188 0.284912 -0.695312 174 149 161 255 
-0.23938 0.285645 -0.697266 179 150 166 255 
-0.236206 0.286133 -0.698242 183 157 172 255 
-0.233398 0.286865 -0.700684 185 159 174 255 
-0.230225 0.287354 -0.70166 185 159 174 255 
-0.226929 0.287842 -0.702637 189 163 178 255 
-0.223755 0.288086 -0.703613 191 165 180 255 
-0.220825 0.289062 -0.705566 193 167 182 255 
-0.217651 0.289307 -0.706543 197 171 186 255 
-0.214355 0.289795 -0.70752 197 173 188 255 
-0.211426 0.290527 -0.709473 198 174 189 255 
-0.208374 0.291504 -0.711426 200 176 191 255 
-0.205078 0.291748 -0.712402 200 177 189 255 
-0.202026 0.292725 -0.714355 202 177 187 255 
-0.19873 0.292969 -0.715332 205 177 188 255 
-0.195435 0.293457 -0.716797 201 171 183 255 
-0.192383 0.294189 -0.71875 203 170 183 255 
-0.188965 0.294678 -0.719727 198 165 178 255 
-0.185547 0.295166 -0.720703 194 161 174 255 
-0.182495 0.295898 -0.722656 190 157 168 255 
-0.179321 0.296875 -0.724609 186 161 169 255 
-0.176147 0.297607 -0.726562 86 74 87 255 
-0.173218 0.298828 -0.729492 54 67 94 255 
-0.170044 0.299561 -0.731445 123 153 183 255 
-0.166748 0.300537 -0.733398 108 143 172 255 
-0.16333 0.300781 -0.734863 116 153 181 255 
-0.159546 0.300781 -0.734863 102 134 166 255 
-0.627441 1.33789 -3.26758 143 141 131 255 
-0.603516 1.32227 -3.22852 143 141 131 255 
-0.589355 1.32617 -3.23828 145 143 131 255 
-0.571289 1.32227 -3.22852 145 144 129 255 
-0.551758 1.31543 -3.21094 143 142 127 255 
-0.535156 1.31348 -3.20703 150 149 134 255 
-0.516113 1.30664 -3.18945 148 147 132 255 
-0.497314 1.29883 -3.17188 128 124 113 255 
-0.479248 1.29297 -3.1582 67 65 55 255 
-0.461182 1.28711 -3.14258 30 26 17 255 
-0.443115 1.28125 -3.12695 33 30 25 255 
-0.425537 1.27539 -3.11328 103 103 97 255 
-0.408203 1.27051 -3.10156 141 141 135 255 
-0.390381 1.2627 -3.08398 148 148 142 255 
-0.372314 1.25488 -3.06445 145 145 139 255 
-0.355469 1.25 -3.05273 146 143 140 255 
-0.338867 1.24512 -3.04102 145 145 141 255 
-0.322266 1.24023 -3.0293 143 144 140 255 
-0.30542 1.23438 -3.01367 145 146 142 255 
-0.289307 1.22949 -3.00195 145 146 142 255 
-0.272705 1.22363 -2.98828 146 147 143 255 
-0.256104 1.2168 -2.9707 147 148 144 255 
-0.239746 1.20898 -2.95312 149 150 146 255 
-0.223511 1.20215 -2.93359 146 147 143 255 
-0.206665 1.18945 -2.9043 151 152 148 255 
-0.191895 1.18945 -2.9043 151 152 148 255 
-0.176636 1.18457 -2.89258 153 154 148 255 
-0.161499 1.18066 -2.88281 152 153 147 255 
-0.146851 1.17969 -2.88086 153 154 148 255 
-0.13208 1.17676 -2.875 157 158 152 255 
-0.117371 1.17578 -2.87109 158 158 152 255 
-0.102905 1.1748 -2.86914 158 158 152 255 
-0.0880127 1.16992 -2.85547 160 160 154 255 
-0.0734863 1.16699 -2.84961 159 159 153 255 
-0.0587769 1.16113 -2.83398 160 160 156 255 
-0.0444336 1.15918 -2.82812 158 159 155 255 
-0.0300598 1.1543 -2.81836 160 161 157 255 
-0.0158081 1.15137 -2.81055 160 161 157 255 
-0.00164223 1.14746 -2.80273 160 161 157 255 
0.0124435 1.14453 -2.79297 161 162 158 255 
0.0264435 1.14062 -2.78516 162 163 159 255 
0.0403748 1.1377 -2.77734 162 163 159 255 
0.0541077 1.13184 -2.76367 164 165 161 255 
0.0678711 1.12988 -2.75977 165 166 162 255 
0.0797729 1.10254 -2.69141 164 165 161 255 
0.0930176 1.09863 -2.68164 165 166 162 255 
0.106079 1.09375 -2.66992 163 166 165 255 
0.118286 1.08203 -2.64062 164 167 166 255 
0.130615 1.07422 -2.62305 166 169 168 255 
0.143311 1.07031 -2.61328 167 170 169 255 
0.155762 1.06543 -2.60156 166 169 168 255 
0.168213 1.06055 -2.58984 170 173 172 255 
0.18042 1.05566 -2.57812 169 172 171 255 
0.192627 1.05176 -2.56836 170 173 172 255 
0.204712 1.04785 -2.55859 173 173 173 255 
0.216919 1.04395 -2.55078 172 175 174 255 
0.229248 1.04199 -2.54492 173 176 177 255 
0.241577 1.04004 -2.53906 179 182 183 255 
0.253418 1.03613 -2.5293 8 18 25 255 
0.265137 1.03223 -2.51953 9 21 25 255 
0.276611 1.02734 -2.50781 11 21 7 255 
0.287354 1.02051 -2.49219 5 20 15 255 
0.298096 1.01465 -2.47852 178 191 190 255 
0.308594 1.00781 -2.46094 180 173 163 255 
0.319092 1.00195 -2.44531 174 166 154 255 
0.329346 0.995605 -2.42969 173 164 157 255 
0.3396 0.989746 -2.41602 157 148 141 255 
0.349854 0.984375 -2.4043 144 135 126 255 
0.359863 0.979492 -2.39062 202 195 187 255 
0.370117 0.974121 -2.37695 165 158 148 255 
0.379883 0.96875 -2.36523 207 200 190 255 
0.389893 0.963867 -2.35156 200 193 185 255 
0.399902 0.959473 -2.3418 200 196 189 255 
0.409912 0.955566 -2.33203 200 195 191 255 
0.42041 0.952148 -2.32422 200 195 191 255 
0.43042 0.94873 -2.31641 203 195 192 255 
0.440918 0.945801 -2.30859 203 195 192 255 
0.451172 0.942871 -2.30273 207 199 196 255 
0.461182 0.939941 -2.29492 205 198 192 255 
0.470703 0.936035 -2.28516 206 199 193 255 
0.480225 0.932129 -2.27539 204 200 193 255 
0.489502 0.927734 -2.26562 203 201 193 255 
0.498047 0.922363 -2.25195 203 200 195 255 
0.506348 0.916992 -2.23828 204 201 198 255 
0.514648 0.911621 -2.22656 203 200 197 255 
0.522949 0.906738 -2.21289 205 202 199 255 
0.531738 0.902832 -2.20312 206 203 200 255 
0.540527 0.898926 -2.19531 206 203 200 255 
0.549805 0.895996 -2.1875 206 203 198 255 
0.559082 0.893066 -2.17969 206 203 198 255 
0.568359 0.890625 -2.17383 207 204 199 255 
0.578125 0.888672 -2.16992 206 203 198 255 
0.587402 0.88623 -2.16406 206 203 200 255 
0.597168 0.884277 -2.1582 207 204 201 255 
0.606445 0.882324 -2.1543 209 206 203 255 
0.615723 0.880371 -2.14844 207 204 201 255 
0.625 0.87793 -2.14258 210 207 204 255 
0.634277 0.875488 -2.13672 210 207 204 255 
0.643555 0.873535 -2.13281 209 206 203 255 
0.651367 0.869629 -2.12305 208 208 204 255 
0.648926 0.852539 -2.08203 209 209 205 255 
0.657715 0.850586 -2.07617 207 207 203 255 
0.666992 0.849121 -2.07227 209 209 205 255 
0.676758 0.847656 -2.06836 209 209 205 255 
0.68457 0.844727 -2.0625 209 209 205 255 
0.693848 0.843262 -2.05859 210 210 206 255 
0.702148 0.841309 -2.05273 210 209 209 255 
0.711426 0.839355 -2.04883 209 208 208 255 
0.719727 0.837402 -2.04492 211 210 210 255 
0.728516 0.835449 -2.03906 210 210 210 255 
0.736328 0.833008 -2.0332 210 210 210 255 
0.744141 0.830078 -2.02539 210 210 210 255 
0.751465 0.82666 -2.01758 213 213 213 255 
0.757812 0.822754 -2.00781 211 211 211 255 
0.763672 0.817871 -1.99707 214 214 214 255 
0.768066 0.812012 -1.98242 211 211 211 255 
0.774414 0.808105 -1.97363 211 211 211 255 
0.78125 0.804688 -1.96484 211 211 211 255 
0.787598 0.80127 -1.95605 211 211 211 255 
0.794922 0.798828 -1.9502 213 213 213 255 
0.802734 0.796875 -1.94531 214 214 214 255 
0.810547 0.794922 -1.94141 214 214 214 255 
0.818359 0.792969 -1.93652 214 214 214 255 
0.826172 0.791504 -1.93164 212 215 214 255 
0.833984 0.789062 -1.92676 212 215 214 255 
0.841797 0.787598 -1.92285 213 216 215 255 
0.849609 0.785645 -1.91797 213 216 215 255 
0.856934 0.783691 -1.91309 213 216 215 255 
0.864258 0.78125 -1.9082 212 215 214 255 
0.871582 0.779297 -1.90332 214 217 216 255 
0.878906 0.777344 -1.89746 214 217 216 255 
0.88623 0.775879 -1.89355 214 217 216 255 
0.893066 0.773438 -1.8877 213 216 215 255 
0.899902 0.770996 -1.88184 213 216 215 255 
0.905762 0.768066 -1.875 214 217 216 255 
0.912598 0.765625 -1.86914 215 218 217 255 
0.918457 0.762695 -1.86133 215 218 217 255 
0.924805 0.760254 -1.85547 214 217 216 255 
0.931641 0.757812 -1.85059 214 217 216 255 
0.937988 0.755371 -1.84473 214 217 216 255 
0.944336 0.753418 -1.83984 213 216 215 255 
0.950684 0.750977 -1.83398 214 217 216 255 
0.956543 0.748535 -1.82812 213 219 217 255 
0.962402 0.745605 -1.82031 212 218 216 255 
0.967285 0.742188 -1.8125 211 217 215 255 
0.972168 0.739258 -1.80469 211 217 215 255 
0.975586 0.734863 -1.79492 211 217 215 255 
0.978516 0.730469 -1.7832 211 217 215 255 
0.984375 0.728027 -1.77734 210 216 214 255 
0.989258 0.725098 -1.77051 209 215 213 255 
0.994629 0.722656 -1.76465 210 216 214 255 
1.00098 0.720703 -1.75977 210 216 214 255 
1.00586 0.718262 -1.75293 211 217 215 255 
1.01172 0.716309 -1.74805 207 213 213 255 
1.01758 0.713867 -1.74316 209 215 215 255 
1.02246 0.710938 -1.73633 209 215 215 255 
1.02734 0.708496 -1.73047 209 215 215 255 
1.0332 0.706055 -1.72461 209 215 215 255 
1.03809 0.703613 -1.71777 206 212 212 255 
1.04297 0.701172 -1.71191 207 213 211 255 
1.04883 0.699707 -1.70801 207 213 211 255 
1.05566 0.698242 -1.70508 206 212 210 255 
1.06348 0.697754 -1.70312 206 212 210 255 
1.06934 0.696289 -1.7002 205 211 209 255 
1.07617 0.694824 -1.69629 205 211 209 255 
1.08203 0.692871 -1.69238 206 212 210 255 
1.08691 0.690918 -1.6875 204 210 208 255 
1.09277 0.689453 -1.68262 204 210 208 255 
1.09668 0.686523 -1.67578 203 211 210 255 
1.10156 0.68457 -1.6709 201 209 208 255 
1.10742 0.682129 -1.66602 201 209 208 255 
1.1123 0.680664 -1.66211 199 207 206 255 
1.11816 0.679199 -1.6582 198 206 203 255 
1.12402 0.677246 -1.6543 199 207 204 255 
1.12891 0.675293 -1.64941 198 207 200 255 
1.13477 0.673828 -1.64453 197 204 198 255 
1.13965 0.671875 -1.64062 196 203 197 255 
1.14453 0.669922 -1.63574 196 203 197 255 
1.14941 0.667969 -1.63086 195 202 196 255 
1.15527 0.666504 -1.62793 193 200 194 255 
1.16113 0.665039 -1.62402 185 194 187 255 
1.16699 0.664062 -1.62109 176 184 185 255 
1.17188 0.662109 -1.61719 189 197 198 255 
1.17773 0.661133 -1.61426 191 199 200 255 
1.18457 0.660156 -1.61133 186 197 197 255 
1.19043 0.658691 -1.6084 185 196 196 255 
1.19629 0.657715 -1.60547 183 194 194 255 
1.20215 0.65625 -1.60254 181 192 192 255 
1.20801 0.655273 -1.59961 182 193 193 255 
1.21387 0.653809 -1.59668 182 193 193 255 
1.21973 0.652832 -1.59375 183 194 194 255 
1.22559 0.651367 -1.59082 182 193 193 255 
1.23145 0.650391 -1.58789 180 191 191 255 
1.23242 0.646973 -1.58008 179 192 191 255 
1.24023 0.646484 -1.5791 180 193 192 255 
-0.355469 0.284912 -0.70459 90 61 49 255 
-0.351318 0.284668 -0.703613 103 72 59 255 
-0.347412 0.28418 -0.702637 106 73 56 255 
-0.343262 0.283691 -0.70166 107 77 59 255 
-0.338867 0.282959 -0.699707 110 80 62 255 
-0.334229 0.282227 -0.697266 109 79 61 255 
-0.329834 0.28125 -0.695312 110 80 64 255 
-0.325439 0.280518 -0.693359 118 87 74 255 
-0.321045 0.279785 -0.691406 123 92 79 255 
-0.316895 0.279297 -0.69043 124 95 81 255 
-0.3125 0.278564 -0.688477 125 96 82 255 
-0.308594 0.278076 -0.6875 131 102 92 255 
-0.304688 0.277588 -0.686523 134 105 95 255 
-0.300781 0.277344 -0.685547 139 112 106 255 
-0.296875 0.276855 -0.68457 137 109 108 255 
-0.293213 0.276367 -0.683594 143 114 118 255 
-0.289551 0.276367 -0.683594 146 117 121 255 
-0.286133 0.276367 -0.683594 146 117 121 255 
-0.282715 0.276367 -0.683594 148 121 124 255 
-0.279297 0.276367 -0.683594 136 114 116 255 
-0.275879 0.276367 -0.683594 135 118 118 255 
-0.272949 0.276855 -0.68457 71 54 54 255 
-0.269775 0.277344 -0.685547 144 123 130 255 
-0.266602 0.277588 -0.686523 144 123 132 255 
-0.263672 0.278076 -0.6875 151 133 141 255 
-0.260498 0.278564 -0.688477 154 133 142 255 
-0.257812 0.279297 -0.69043 151 130 141 255 
-0.254639 0.279785 -0.691406 151 130 141 255 
-0.251709 0.280029 -0.692383 158 135 147 255 
-0.249268 0.28125 -0.695312 162 139 151 255 
-0.246094 0.281738 -0.696289 169 145 160 255 
-0.24292 0.282227 -0.697266 170 146 161 255 
-0.239746 0.282471 -0.698242 174 148 163 255 
-0.236938 0.283447 -0.700684 175 149 164 255 
-0.233765 0.283691 -0.70166 183 157 172 255 
-0.230469 0.28418 -0.702637 184 158 173 255 
-0.227295 0.284668 -0.703613 186 160 177 255 
-0.224121 0.284912 -0.70459 188 162 179 255 
-0.220825 0.2854 -0.705566 196 170 185 255 
-0.217651 0.285889 -0.706543 198 172 187 255 
-0.2146 0.286621 -0.708496 197 173 188 255 
-0.211426 0.287109 -0.709473 197 173 188 255 
-0.208374 0.287842 -0.711426 197 173 188 255 
-0.205078 0.28833 -0.712402 200 177 189 255 
-0.201782 0.288574 -0.713379 204 179 189 255 
-0.19873 0.289551 -0.715332 203 178 188 255 
-0.19519 0.289551 -0.715332 205 177 188 255 
-0.191528 0.289551 -0.715332 200 170 182 255 
-0.188232 0.289795 -0.716797 199 169 181 255 
-0.184814 0.290283 -0.717773 191 161 173 255 
-0.181763 0.291016 -0.719727 183 162 173 255 
-0.178345 0.291504 -0.720703 111 109 123 255 
-0.175171 0.292236 -0.722656 64 84 106 255 
-0.172241 0.293457 -0.725586 39 74 103 255 
-0.169067 0.294434 -0.727539 37 74 106 255 
-0.166138 0.295654 -0.730469 58 98 129 255 
-0.162598 0.295898 -0.731445 113 153 182 255 
-0.15918 0.296387 -0.732422 107 144 172 255 
-0.155518 0.296387 -0.732422 107 139 169 255 
-0.584961 1.30078 -3.21484 148 147 132 255 
-0.567383 1.29785 -3.20703 147 146 131 255 
-0.551758 1.29785 -3.20898 99 98 83 255 
-0.532227 1.29004 -3.18945 43 41 31 255 
-0.512695 1.28125 -3.16797 26 22 15 255 
-0.493408 1.27344 -3.14648 30 25 21 255 
-0.474121 1.26367 -3.12305 86 83 78 255 
-0.456543 1.25879 -3.11133 152 149 146 255 
-0.438477 1.25195 -3.09375 159 154 152 255 
-0.421875 1.24902 -3.08789 145 145 141 255 
-0.405029 1.24512 -3.07812 143 143 137 255 
-0.387695 1.23926 -3.0625 144 144 138 255 
-0.373047 1.24121 -3.06836 144 144 138 255 
-0.355469 1.23438 -3.05078 145 145 139 255 
-0.338867 1.23047 -3.04102 147 147 141 255 
-0.32251 1.22656 -3.03125 147 147 141 255 
-0.305908 1.2207 -3.01758 146 147 141 255 
-0.289307 1.21582 -3.00391 149 150 144 255 
-0.272949 1.20996 -2.99023 147 148 142 255 
-0.256592 1.20312 -2.97461 146 147 141 255 
-0.239868 1.19434 -2.95312 147 148 142 255 
-0.223633 1.1875 -2.93555 151 152 146 255 
-0.207275 1.17871 -2.91406 152 153 147 255 
-0.192261 1.17676 -2.9082 151 152 146 255 
-0.177002 1.17285 -2.89844 153 154 148 255 
-0.161865 1.16895 -2.89062 155 156 150 255 
-0.146729 1.16406 -2.87891 154 155 149 255 
-0.131958 1.16211 -2.87305 156 156 150 255 
-0.11731 1.16016 -2.86914 158 158 152 255 
-0.102783 1.15918 -2.86719 159 159 153 255 
-0.0880127 1.15527 -2.85547 160 160 154 255 
-0.0734253 1.15234 -2.84961 160 160 156 255 
-0.0588684 1.14746 -2.83789 162 162 158 255 
-0.0444336 1.14453 -2.83008 161 162 158 255 
-0.0300751 1.14062 -2.82031 161 162 158 255 
-0.0158081 1.13672 -2.81055 161 162 158 255 
-0.00164127 1.13281 -2.80078 161 162 158 255 
0.0124359 1.12988 -2.79297 161 162 158 255 
0.0264282 1.12598 -2.7832 162 163 159 255 
0.0403442 1.12305 -2.77734 162 163 159 255 
0.0540771 1.11719 -2.76367 166 167 163 255 
0.0665283 1.09375 -2.70312 165 166 162 255 
0.0797729 1.08887 -2.69141 164 165 161 255 
0.0928955 1.08301 -2.67773 165 166 162 255 
0.105835 1.07812 -2.66406 164 168 163 255 
0.118347 1.06934 -2.64258 166 169 168 255 
0.130737 1.06152 -2.625 165 171 169 255 
0.143311 1.05664 -2.61133 166 169 168 255 
0.155762 1.05273 -2.60156 170 173 172 255 
0.168213 1.04785 -2.58984 169 173 168 255 
0.18042 1.04297 -2.58008 167 171 166 255 
0.192749 1.03906 -2.56836 170 174 169 255 
0.204956 1.03516 -2.56055 172 176 171 255 
0.217285 1.0332 -2.55273 159 159 159 255 
0.229492 1.03027 -2.54688 174 177 176 255 
0.241821 1.02832 -2.54102 184 187 186 255 
0.253662 1.02441 -2.53125 10 17 25 255 
0.265381 1.02051 -2.52148 10 20 23 255 
0.276611 1.01465 -2.50977 9 22 9 255 
0.287598 1.00879 -2.49414 6 21 18 255 
0.298096 1.00195 -2.47852 174 191 194 255 
0.308594 0.996094 -2.46094 179 175 166 255 
0.319092 0.989746 -2.44531 173 166 156 255 
0.329346 0.983887 -2.43164 173 164 157 255 
0.3396 0.978027 -2.41797 158 149 142 255 
0.350098 0.972656 -2.4043 149 138 129 255 
0.360107 0.967773 -2.39062 204 195 188 255 
0.370361 0.962891 -2.37891 177 170 162 255 
0.380371 0.958008 -2.36719 207 200 192 255 
0.390381 0.953613 -2.35547 201 194 186 255 
0.400879 0.949707 -2.34766 201 194 188 255 
0.410889 0.945801 -2.33789 202 195 189 255 
0.421143 0.942383 -2.33008 205 197 194 255 
0.431396 0.938965 -2.32031 203 195 192 255 
0.44165 0.936035 -2.3125 203 195 192 255 
0.45166 0.932617 -2.30469 205 197 194 255 
0.46167 0.929199 -2.29688 205 197 194 255 
0.471436 0.925781 -2.28711 205 197 194 255 
0.480957 0.921875 -2.27734 205 198 192 255 
0.48999 0.91748 -2.26758 204 200 193 255 
0.498779 0.912598 -2.25391 204 202 194 255 
0.506836 0.907227 -2.24219 204 201 196 255 
0.515137 0.901855 -2.22852 204 201 196 255 
0.523438 0.896484 -2.21484 205 202 197 255 
0.531738 0.891602 -2.20312 206 203 198 255 
0.540527 0.888184 -2.19531 205 202 199 255 
0.549805 0.884766 -2.1875 205 202 199 255 
0.559082 0.881836 -2.17969 206 203 198 255 
0.568359 0.879395 -2.17383 206 203 198 255 
0.578125 0.877441 -2.16797 206 203 198 255 
0.587402 0.875488 -2.16406 206 203 198 255 
0.597168 0.873535 -2.1582 209 206 201 255 
0.606934 0.871582 -2.1543 210 207 202 255 
0.616211 0.869629 -2.15039 211 208 203 255 
0.625977 0.868164 -2.14453 210 207 204 255 
0.635254 0.866211 -2.14062 209 206 203 255 
0.644043 0.863281 -2.13281 210 207 204 255 
0.650391 0.85791 -2.12109 210 207 204 255 
0.65918 0.85498 -2.11328 208 208 204 255 
0.667969 0.853027 -2.10742 209 209 205 255 
0.677246 0.851074 -2.10352 208 208 204 255 
0.676758 0.837402 -2.06836 210 210 206 255 
0.68457 0.834473 -2.0625 210 210 206 255 
0.693848 0.833008 -2.05859 211 211 207 255 
0.702148 0.830566 -2.05273 211 211 207 255 
0.710938 0.828613 -2.04883 211 210 210 255 
0.719727 0.827148 -2.04492 210 209 209 255 
0.728027 0.824707 -2.03711 210 209 209 255 
0.736328 0.822754 -2.0332 211 210 210 255 
0.744141 0.819824 -2.02539 212 211 211 255 
0.751465 0.816406 -2.01758 212 211 211 255 
0.758301 0.812988 -2.00977 211 210 210 255 
0.76416 0.808594 -1.99805 211 211 211 255 
0.768066 0.801758 -1.98242 214 214 214 255 
0.773438 0.797363 -1.97168 214 214 214 255 
0.780762 0.794434 -1.96387 213 213 213 255 
0.786621 0.790527 -1.9541 213 213 213 255 
0.793945 0.788086 -1.94824 211 211 211 255 
0.801758 0.786133 -1.94336 213 213 213 255 
0.80957 0.78418 -1.93848 213 213 213 255 
0.817383 0.782227 -1.93359 214 214 214 255 
0.825195 0.780273 -1.92871 214 214 214 255 
0.83252 0.77832 -1.92383 216 216 216 255 
0.84082 0.776855 -1.91992 216 216 216 255 
0.848145 0.774902 -1.91504 216 216 216 255 
0.855469 0.772461 -1.91016 216 216 216 255 
0.863281 0.770996 -1.90625 216 216 216 255 
0.871094 0.769531 -1.90234 214 217 216 255 
0.878418 0.767578 -1.89648 214 217 216 255 
0.885742 0.765625 -1.89258 213 216 215 255 
0.893066 0.763672 -1.8877 212 215 214 255 
0.899902 0.76123 -1.88184 211 214 213 255 
0.90625 0.758789 -1.87598 213 216 215 255 
0.912598 0.755859 -1.86914 214 217 216 255 
0.918457 0.75293 -1.86133 213 216 215 255 
0.924805 0.750488 -1.85547 214 217 216 255 
0.931152 0.748047 -1.84961 213 216 215 255 
0.9375 0.746094 -1.84375 214 217 216 255 
0.943359 0.743652 -1.83789 213 216 215 255 
0.949707 0.741211 -1.83203 214 217 216 255 
0.955078 0.738281 -1.82422 214 217 216 255 
0.960449 0.735352 -1.81738 213 216 215 255 
0.965332 0.731934 -1.80957 212 218 216 255 
0.970703 0.729004 -1.80273 211 217 217 255 
0.975098 0.725586 -1.79395 211 217 217 255 
0.979004 0.72168 -1.78418 210 216 216 255 
0.984863 0.719238 -1.77832 209 215 215 255 
0.989746 0.716797 -1.77148 209 215 215 255 
0.996094 0.714355 -1.7666 210 216 216 255 
1.00195 0.712402 -1.76172 209 217 216 255 
1.00684 0.709961 -1.75488 209 217 216 255 
1.0127 0.708008 -1.75 209 217 216 255 
1.01855 0.706055 -1.74512 210 216 216 255 
1.02344 0.703125 -1.73828 209 215 215 255 
1.0293 0.700684 -1.73242 207 213 213 255 
1.0332 0.697754 -1.72559 209 215 215 255 
1.03809 0.695312 -1.71777 206 214 213 255 
1.04297 0.692871 -1.71191 208 216 215 255 
1.04785 0.69043 -1.70703 205 213 212 255 
1.05469 0.688965 -1.70312 205 213 212 255 
1.06055 0.6875 -1.69922 204 212 211 255 
1.06836 0.687012 -1.69824 204 212 209 255 
1.07422 0.685547 -1.69434 203 211 208 255 
1.08008 0.683594 -1.69043 204 210 208 255 
1.08496 0.681152 -1.68457 203 209 207 255 
1.0918 0.680664 -1.68164 204 210 208 255 
1.09766 0.678223 -1.67676 203 209 207 255 
1.10156 0.675781 -1.66992 204 210 208 255 
1.10645 0.67334 -1.66504 202 208 206 255 
1.1123 0.671875 -1.66113 202 208 206 255 
1.11816 0.67041 -1.65723 202 208 206 255 
1.12305 0.668457 -1.65234 200 206 204 255 
1.12793 0.666504 -1.64844 197 204 198 255 
1.13379 0.665039 -1.64355 198 205 199 255 
1.13965 0.663574 -1.63965 195 202 196 255 
1.14453 0.661621 -1.63574 195 202 194 255 
1.14941 0.659668 -1.63086 195 202 194 255 
1.15527 0.658691 -1.62793 192 199 191 255 
1.16113 0.656738 -1.62402 177 185 182 255 
1.16699 0.655762 -1.62109 182 193 193 255 
1.17285 0.654297 -1.61816 186 197 197 255 
1.17773 0.652832 -1.61426 187 198 198 255 
1.18359 0.651855 -1.61035 186 197 197 255 
1.18945 0.650391 -1.60742 186 197 197 255 
1.19531 0.649414 -1.60449 183 194 194 255 
1.20117 0.647949 -1.60156 182 193 193 255 
1.20703 0.646973 -1.59863 182 193 193 255 
1.21289 0.645508 -1.5957 182 193 193 255 
1.21973 0.644531 -1.59375 182 193 193 255 
1.22559 0.643555 -1.59082 182 193 193 255 
1.23145 0.64209 -1.58789 180 191 191 255 
1.2373 0.641602 -1.58594 180 191 191 255 
1.23926 0.638184 -1.57812 179 190 190 255 
-0.352783 0.282227 -0.706543 105 76 62 255 
-0.348389 0.281494 -0.70459 102 71 58 255 
-0.344238 0.281006 -0.703613 104 73 60 255 
-0.340332 0.280762 -0.702637 108 74 62 255 
-0.335693 0.279785 -0.700684 109 78 65 255 
-0.331299 0.279053 -0.698242 112 81 68 255 
-0.326416 0.277832 -0.695312 118 87 74 255 
-0.321777 0.2771 -0.693359 121 90 77 255 
-0.317871 0.276611 -0.692383 124 93 80 255 
-0.313477 0.275879 -0.69043 125 94 81 255 
-0.30957 0.275391 -0.689453 128 97 84 255 
-0.305664 0.275146 -0.688477 132 101 90 255 
-0.301758 0.274658 -0.6875 131 101 94 255 
-0.297852 0.27417 -0.686523 134 106 103 255 
-0.294434 0.27417 -0.686523 140 114 112 255 
-0.290527 0.273926 -0.685547 144 118 116 255 
-0.287109 0.273926 -0.685547 143 117 117 255 
-0.283691 0.273926 -0.685547 144 118 118 255 
-0.280273 0.273926 -0.685547 134 112 114 255 
-0.276611 0.273926 -0.685547 132 113 111 255 
-0.273682 0.27417 -0.686523 69 49 50 255 
-0.270508 0.274658 -0.6875 145 127 137 255 
-0.267578 0.275146 -0.688477 142 124 134 255 
-0.264404 0.275391 -0.689453 141 123 131 255 
-0.26123 0.275879 -0.69043 154 133 142 255 
-0.258545 0.276611 -0.692383 153 132 141 255 
-0.255371 0.2771 -0.693359 160 139 148 255 
-0.252441 0.277344 -0.694336 160 139 150 255 
-0.249634 0.27832 -0.696289 161 140 151 255 
-0.24646 0.278564 -0.697266 167 143 158 255 
-0.243286 0.279053 -0.698242 170 146 161 255 
-0.240479 0.279785 -0.700684 172 146 161 255 
-0.237305 0.280273 -0.70166 177 151 166 255 
-0.234131 0.280762 -0.702637 182 156 171 255 
-0.230835 0.281006 -0.703613 182 156 171 255 
-0.227661 0.281494 -0.70459 186 160 177 255 
-0.224365 0.281738 -0.705566 189 163 180 255 
-0.221191 0.282227 -0.706543 195 169 184 255 
-0.217896 0.282715 -0.70752 196 171 183 255 
-0.2146 0.282959 -0.708496 198 173 185 255 
-0.211426 0.283447 -0.709473 203 178 190 255 
-0.208374 0.28418 -0.711426 200 175 187 255 
-0.205078 0.284668 -0.712402 203 178 190 255 
-0.201782 0.285156 -0.713379 204 176 189 255 
-0.198242 0.285156 -0.713379 207 179 192 255 
-0.19458 0.285156 -0.713379 205 177 188 255 
-0.19104 0.285156 -0.713379 200 172 183 255 
-0.187378 0.285156 -0.713379 197 172 182 255 
-0.184082 0.2854 -0.714355 166 150 157 255 
-0.180664 0.285889 -0.715332 114 118 132 255 
-0.177612 0.286621 -0.717773 107 130 149 255 
-0.174438 0.287354 -0.719727 107 144 165 255 
-0.171265 0.28833 -0.72168 109 146 174 255 
-0.168335 0.289551 -0.724609 40 77 107 255 
-0.165161 0.290283 -0.726562 37 77 108 255 
-0.161987 0.291016 -0.728516 24 61 91 255 
-0.158569 0.291504 -0.729492 47 82 111 255 
-0.155029 0.291992 -0.730469 88 121 148 255 
-0.151367 0.291992 -0.730469 88 124 148 255 
-0.515137 1.27148 -3.18359 149 146 143 255 
-0.492188 1.25391 -3.13867 148 145 140 255 
-0.474854 1.25 -3.12891 143 140 135 255 
-0.458496 1.24805 -3.125 143 140 137 255 
-0.439453 1.23926 -3.10156 147 144 141 255 
-0.421875 1.2334 -3.08789 147 144 141 255 
-0.405273 1.23047 -3.07812 144 144 138 255 
-0.388184 1.22559 -3.06836 144 144 138 255 
-0.371582 1.22168 -3.05859 145 145 139 255 
-0.355957 1.2207 -3.05469 144 145 139 255 
-0.338867 1.21484 -3.04102 145 146 140 255 
-0.32251 1.21094 -3.03125 145 146 140 255 
-0.305908 1.20605 -3.01953 146 147 141 255 
-0.289551 1.20117 -3.00586 142 143 137 255 
-0.273193 1.19531 -2.99219 145 146 140 255 
-0.256592 1.18848 -2.97656 149 150 144 255 
-0.240234 1.18164 -2.95898 149 150 144 255 
-0.223877 1.17383 -2.93945 150 151 145 255 
-0.207886 1.16797 -2.92188 151 152 146 255 
-0.192139 1.16113 -2.9082 154 155 149 255 
-0.17688 1.15723 -2.89648 155 156 150 255 
-0.161865 1.1543 -2.88867 154 155 149 255 
-0.146362 1.14746 -2.87305 157 158 152 255 
-0.131714 1.14551 -2.86914 157 158 152 255 
-0.117126 1.14453 -2.86328 156 156 150 255 
-0.1026 1.14258 -2.86133 161 161 155 255 
-0.0878296 1.13867 -2.84961 161 161 155 255 
-0.0733643 1.13672 -2.8457 161 161 157 255 
-0.0588379 1.13281 -2.83594 161 162 158 255 
-0.0444031 1.12891 -2.82617 160 161 157 255 
-0.0300446 1.125 -2.81641 161 162 158 255 
-0.0157928 1.12109 -2.80664 162 163 159 255 
-0.00163937 1.11816 -2.79883 164 165 161 255 
0.0124207 1.11426 -2.78906 164 165 161 255 
0.0263824 1.11035 -2.7793 164 165 161 255 
0.0401611 1.10449 -2.76562 165 166 162 255 
0.053833 1.09863 -2.75 164 165 161 255 
0.0665283 1.08008 -2.70312 165 166 162 255 
0.0796509 1.07324 -2.6875 167 168 164 255 
0.0926514 1.06738 -2.67188 166 167 163 255 
0.10553 1.06152 -2.65625 166 170 165 255 
0.118164 1.05469 -2.63867 167 171 166 255 
0.130737 1.04883 -2.625 167 171 166 255 
0.143311 1.04395 -2.61133 166 169 168 255 
0.155762 1.03906 -2.60156 146 154 155 255 
0.168213 1.03516 -2.5918 159 167 166 255 
0.180542 1.03125 -2.58203 171 174 173 255 
0.192871 1.02734 -2.57031 132 132 132 255 
0.2052 1.02441 -2.56445 138 139 135 255 
0.217529 1.02148 -2.55664 174 175 171 255 
0.229858 1.01953 -2.55078 178 179 175 255 
0.242188 1.0166 -2.54492 192 193 189 255 
0.25415 1.0127 -2.53516 8 13 18 255 
0.265625 1.00879 -2.52539 8 20 22 255 
0.276855 1.00391 -2.51172 12 22 10 255 
0.287842 0.99707 -2.49609 10 18 17 255 
0.29834 0.990723 -2.48047 179 189 192 255 
0.308838 0.983887 -2.46289 178 176 168 255 
0.319092 0.977539 -2.44727 172 168 159 255 
0.329346 0.97168 -2.43164 168 161 153 255 
0.339844 0.966309 -2.41797 158 151 143 255 
0.350098 0.960938 -2.40625 160 151 142 255 
0.360352 0.956543 -2.39258 210 201 194 255 
0.37085 0.952148 -2.38281 183 174 169 255 
0.381104 0.947754 -2.37109 206 197 192 255 
